# .PCD v0.7 - Point Cloud Data file format
VERSION 0.7
FIELDS x y z intensity
SIZE 4 4 4 4
TYPE F F F F
COUNT 1 1 1 1
WIDTH 1162
HEIGHT 1
VIEWPOINT 0 0 0 1 0 0 0
POINTS 1162
DATA ascii
8.105257 1.222854 -8.5150852 42.09
51.806282 1.4108062 -8.582056 35.079498
-5.1533742 -1.2008357 -8.3204622 18.009001
-4.2223701 -1.2026713 -8.0129738 20.006248
-3.7762527 -1.2069169 -8.1030922 20.005083
-3.3390167 -1.2065372 -8.2567501 19.504625
-3.0247695 -1.2083106 -8.2046099 18.671083
-2.6852162 -1.2142832 -8.2375278 18.504063
-2.2193868 -1.2202473 -8.2999516 17.4037
-1.8267484 -1.2206089 -8.1670856 16.503
-1.4485745 -1.2177099 -8.0989704 17.501625
-1.0744654 -1.2230803 -8.1832094 16.001167
-0.57765472 -1.2216051 -8.1242046 17.7505
-0.094418496 -1.2232057 -8.1911869 19.051001
0.29352131 -1.2175534 -8.0995903 19.601749
0.62306911 -1.2267684 -8.1463137 20.734335
0.96804351 -1.2282231 -8.1801853 19.080648
1.3006523 -1.2378136 -8.0969448 16.049999
1.8141 -1.2361624 -8.163476 18.074499
2.1960084 -1.2368313 -8.1361952 21.766167
2.5641818 -1.243585 -8.2853231 18.431583
3.0483084 -1.2445182 -8.2579145 22.098749
3.4398763 -1.2471464 -8.1742964 19.347
3.7637494 -1.2483847 -8.2278385 18.296
4.2146358 -1.2454818 -8.2135525 20.096125
4.5458016 -1.2449932 -8.1857128 19.345125
4.870069 -1.2380935 -8.0997515 21.095667
5.379837 -1.2511698 -8.2778187 19.694101
5.8196974 -1.2535994 -8.1742363 19.693451
6.1974707 -1.2529293 -8.0587406 19.092375
6.99334 -1.261682 -8.2243185 23.428083
7.3505707 -1.2548809 -8.197381 23.094
7.8110886 -1.2551188 -8.1400814 22.759832
8.21521 -1.2474171 -8.2491264 23.893501
8.8639507 -1.2645891 -8.2007036 20.089001
9.2203722 -1.2529293 -8.3095064 24.092501
9.8068428 -1.2563807 -8.2717476 23.341
10.288278 -1.2673308 -8.147851 23.424002
10.55834 -1.2635165 -8.1485519 23.5905
11.020644 -1.2746443 -8.0925255 23.59025
11.395383 -1.2675281 -8.2777901 24.591
11.899546 -1.2825005 -8.0409842 24.0895
12.423127 -1.2867699 -8.0812588 23.0875
13.03212 -1.281274 -8.1607609 24.589249
13.296938 -1.2739923 -8.2304096 24.087749
13.776145 -1.2878774 -8.0863838 25.089249
14.789947 -1.3099374 -8.1000786 23.084999
15.1458 -1.2972414 -8.1796627 24.086
15.243021 -1.2853169 -8.1152124 25.0875
15.779441 -1.2940521 -8.2099094 25.087502
16.137854 -1.295887 -8.1166668 24.084499
16.476721 -1.2927258 -8.3272114 26.089001
16.96166 -1.3035196 -8.3489494 25.086
17.497828 -1.3163557 -8.2506752 24.084
17.736862 -1.3121431 -8.1420317 25.7535
18.626719 -1.3166981 -8.2237015 25.084499
19.144945 -1.3238947 -8.1625586 25.084
19.292898 -1.3120804 -8.3451138 25.0835
19.81081 -1.3090694 -8.2323008 26.085501
20.709846 -1.3068844 -8.2743607 25.083
21.620747 -1.3089561 -8.0242596 26.084
22.68947 -1.3152525 -8.1982479 26.584499
22.926891 -1.2921633 -8.1627235 26
27.185528 -1.2941569 -8.2027016 27.5
27.211763 -1.2389721 -8.0897789 28
-9.7407532 -1.1141999 -8.1551046 26.007
-8.5205851 -1.1657525 -8.1448116 24.008249
-7.9411798 -1.1706169 -8.2578182 24.0075
-5.6640687 -1.1579094 -8.3628349 22.0065
-5.449543 -1.1827868 -8.1329031 19.841084
-4.9855351 -1.1830468 -8.2463951 20.7565
-4.4275537 -1.1848063 -8.2879143 22.004999
-4.162828 -1.1970655 -8.077446 17.007334
-3.802362 -1.1909517 -8.1335468 20.255001
-3.4735909 -1.1961337 -8.2142029 21.004168
-2.9403644 -1.1855164 -8.0789232 25.501751
-2.3026266 -1.1879153 -8.1072903 25.501249
-1.6640885 -1.1901491 -8.0858641 25.50075
-1.0718192 -1.1988693 -8.1382761 25.0005
-0.49577525 -1.198472 -8.076333 25
27.140276 -1.0528359 -8.1511898 28.178667
27.223768 -1.0349971 -8.1272593 28
27.123814 -0.67303008 -8.2088871 29.375
27.260149 -0.59072125 -8.2060881 29.764
50.323261 -0.51178908 -8.0660343 32.085499
50.666245 -0.49671403 -8.0253143 31
28.03624 -0.37130713 -8.3599997 30.081499
50.454601 -0.23001957 -8.0824175 32
-10.417069 0.19147542 -8.2678223 32.004501
-10.316825 0.20712574 -8.234272 32.585583
50.322063 0.02117848 -8.2275066 32.542747
50.499928 0.13033538 -8.1692724 32.5
51.594856 0.18315777 -8.383544 33.082001
-10.412092 0.59561384 -8.157135 33.004501
-10.322041 0.58077991 -8.2457323 34.591873
50.312973 0.48314828 -8.0349064 33
50.492401 0.62342381 -8.3697939 33.5
50.902695 0.69993389 -8.1639299 34.082001
51.91111 0.40195733 -8.0186682 33.080002
-10.415176 1.1586435 -8.3599138 41.0145
-10.337411 1.0353856 -8.3092976 37.407127
-9.4480972 0.91290337 -8.0924921 37.008499
-8.5760288 1.0292532 -8.1116266 39.010498
-8.1923647 1.0037858 -8.1617565 41.012749
-7.9135337 1.0004468 -8.1199627 39.009502
-7.3554072 0.99680936 -8.2027035 39.509251
-7.0141149 0.98801076 -8.2185631 40.009998
-6.4543471 1.0161775 -8.2448044 38.673168
-6.1477995 1.0051291 -8.308444 38.806702
-5.9266582 0.99119413 -8.3212461 39.0065
-0.14599524 1.1946445 -8.1586943 42.602001
0.15770832 1.1916727 -8.3156052 38.551003
0.61760056 1.1894441 -8.3249969 44.101002
0.99560857 1.1909709 -8.3214617 42.434002
1.3068415 1.1926023 -8.297987 44.099873
1.6746702 1.1877265 -8.20187 44.099251
2.5265694 1.1767852 -8.2195301 41.099251
3.501694 1.1896628 -8.3707714 45.096001
4.247911 1.179984 -8.357708 40.098
4.416832 1.190434 -8.0970459 43.095001
5.4062819 1.1880374 -8.3378544 41.595001
7.1400733 1.1606261 -8.2150049 40.427334
8.0469599 1.1422611 -8.1819239 39.095001
8.6384115 1.146472 -8.0650854 39.094501
8.9404259 1.1419072 -8.0713577 38.594501
10.051278 1.1297071 -8.3476868 39.092999
10.842962 1.1688066 -8.2729111 40.588501
11.779743 1.126081 -8.0798988 40.087502
13.602554 1.1204503 -8.2189407 39.088501
14.040289 1.1252501 -8.0650082 39.086498
14.514929 1.123661 -8.2161808 39.085999
15.372513 1.13746 -8.2569962 38.58725
17.080059 1.110811 -8.0260029 38.086498
18.08737 1.1329681 -8.3133669 38.087002
20.807978 1.1251017 -8.3521338 37.083
21.26664 1.0979662 -8.0782661 37.0835
21.966885 1.0914042 -8.007719 37.0825
51.929516 0.91338044 -8.067338 34.080002
52.134388 1.0443604 -8.0799026 34.079498
58.637123 1.1266689 -8.2680511 34.078999
-10.276388 1.256212 -8.1769085 40.512001
-9.3528242 1.2976519 -8.2517996 40.677002
-8.5896206 1.2190692 -8.0119381 36.005001
-7.440114 1.2740202 -8.2929487 42.010002
-6.4683342 1.2543216 -8.1687431 38.004753
-6.2038498 1.2609043 -8.0616875 41.340832
-5.8340116 1.2603731 -8.2030964 40.756748
-5.4557076 1.2898874 -8.0399837 42.5075
-5.0262165 1.2639965 -8.078476 42.256752
-4.5629249 1.2711325 -8.0776701 43.206596
-4.2198334 1.2677081 -8.1383066 41.504917
-3.750953 1.271091 -8.1325855 43.755623
-3.4507425 1.2690817 -8.1735792 41.691498
-3.0820191 1.255751 -8.1250715 44.449169
-2.6769025 1.2623618 -8.1232653 43.360821
-2.3085003 1.2588224 -8.1719818 42.877937
-1.7928905 1.2475257 -8.183115 42.335384
-1.3956252 1.2409849 -8.2362394 43.251747
-1.0302584 1.2313734 -8.1520853 42.000957
-0.59703606 1.2339817 -8.2410698 43.011917
-0.16408147 1.2324222 -8.2472172 43.620552
0.22886658 1.2391963 -8.2714834 43.546223
0.5810684 1.231052 -8.2970228 42.501305
0.97319716 1.2372122 -8.3097267 43.350563
1.3778811 1.2325881 -8.2832069 41.900452
1.838254 1.2300942 -8.3612595 40.10025
2.1631064 1.2281327 -8.3179779 42.154861
2.4958348 1.2335469 -8.3223467 44.098
3.1114664 1.2473124 -8.3778095 42.348248
3.3572874 1.260018 -8.3214569 43.597122
3.8538589 1.2235746 -8.3000441 42.430164
4.5134263 1.2159728 -8.2346058 42.762333
5.3002176 1.2319856 -8.2792187 44.093498
5.8118763 1.2023983 -8.0886641 38.0975
6.2545881 1.2193401 -8.2453346 43.091999
7.0011306 1.2389337 -8.3371754 43.091
-6.3558874 -1.2001661 -7.7060103 18.0105
-5.0346375 -1.208117 -7.7431808 19.507439
-4.6025262 -1.207554 -7.8532805 17.674334
-4.1016636 -1.2046833 -7.8789544 19.005751
-3.8427029 -1.2180598 -7.6704044 19.505749
-3.4476624 -1.2103317 -7.7845068 16.0065
-3.0082674 -1.2101609 -7.7431459 20.004063
-2.5778947 -1.2146442 -7.7569442 19.6026
-2.2630744 -1.2189984 -7.750237 18.335207
-1.8388908 -1.2178221 -7.799602 19.751469
-1.4150609 -1.2140676 -7.737062 20.167833
-1.0048397 -1.2238145 -7.793674 18.688063
-0.64504623 -1.2241048 -7.821651 18.500334
-0.23276281 -1.2206068 -7.8407617 19.164715
0.20731351 -1.2218753 -7.8204751 21.2915
0.66486692 -1.2260998 -7.761724 19.286535
1.0207219 -1.2255431 -7.790801 19.786142
1.3856574 -1.2319424 -7.7860622 19.200062
1.7386312 -1.2337687 -7.8092666 20.079824
2.2254937 -1.2371407 -7.7369013 20.129324
2.6538031 -1.243426 -7.7837367 19.448875
2.9847128 -1.2454011 -7.7530279 19.655321
3.3505187 -1.2490199 -7.7391367 19.0779
3.8525047 -1.2493275 -7.754818 19.846561
4.168829 -1.2554893 -7.9216652 19.429251
4.5603266 -1.2561494 -7.7817888 20.2957
5.0205579 -1.2612915 -7.7748599 19.261084
5.3887086 -1.2629179 -7.7990499 22.095688
5.7849889 -1.2545792 -7.7965851 19.59325
6.2231317 -1.2635665 -7.7600908 20.893599
6.6096425 -1.2689714 -7.7858748 19.091749
6.8814569 -1.2636775 -7.666028 18.0905
7.4001608 -1.2708609 -7.8110113 20.341373
7.8600063 -1.2644109 -7.724247 21.091499
8.2459354 -1.2757494 -7.7332878 20.59025
8.5750332 -1.2588441 -7.8365359 23.52132
9.0170546 -1.253255 -7.8350811 23.091667
9.380578 -1.2575155 -7.7580996 24.092501
10.061355 -1.260986 -7.759182 24.091499
10.60166 -1.2740152 -7.8098979 22.589001
11.085556 -1.2773359 -7.7412758 24.591
11.362911 -1.2730851 -7.6841488 23.589748
11.870737 -1.2799278 -7.8850594 25.591999
12.362265 -1.2929171 -7.7603588 24.089001
12.884197 -1.3051729 -7.8158298 23.087
13.431255 -1.3033713 -7.9417429 24.088249
13.785329 -1.3022805 -7.8631682 23.7535
14.258878 -1.3111316 -7.6737461 24.086832
14.493928 -1.2919002 -7.8616285 26.0905
15.16027 -1.3210753 -7.707819 23.084499
15.598768 -1.3126304 -7.8035073 24.085501
15.925046 -1.3079096 -7.8371897 24.585999
16.502037 -1.3034239 -7.6953707 25.0865
16.978956 -1.2991501 -7.8453145 26.088499
17.897255 -1.3277466 -7.7770309 24.0835
18.230373 -1.3081399 -7.6613531 26.087
18.928085 -1.320102 -7.6441426 25.084
19.521477 -1.3141799 -7.7361541 25.083
19.612877 -1.3406751 -7.6573806 25.0835
20.334791 -1.3196462 -7.7108765 26.084999
21.258615 -1.3258209 -7.7462764 25.0825
22.662672 -1.306968 -7.9144988 26.083
23.222998 -1.2034756 -7.8538899 26
27.188522 -1.3406192 -7.7254348 27
27.239679 -1.2369159 -7.8973885 28
-10.300687 -1.0951569 -7.7672744 27.00625
-8.9912643 -1.1514256 -7.8800259 24.009001
-8.6453562 -1.1782076 -7.8658648 23.009501
-7.6556578 -1.1839807 -7.6640615 22.508751
-7.3938885 -1.1835541 -7.7658062 23.5075
-7.0474329 -1.1856383 -7.8790436 24.0065
-6.6295476 -1.1676643 -7.8287001 26.004
-5.6283202 -1.1949909 -7.9498501 18.01
-5.2012372 -1.1801014 -7.9814587 22.006001
-5.0460801 -1.1802564 -7.753901 22.671831
-4.5518527 -1.1920177 -7.8336158 23.004667
-4.2870693 -1.1941214 -7.8740511 19.506001
-3.8978329 -1.1703317 -7.6960249 25.003
-3.4063129 -1.1961344 -7.7224016 22.004
-2.9560595 -1.182178 -7.6293201 22.0035
-2.1681805 -1.1951056 -7.8688745 22.002501
-0.95878184 -1.1880562 -7.9073043 24.0005
-0.43602771 -1.184721 -7.8619547 26.101999
23.103243 -0.98953587 -7.7749343 27.863636
23.233004 -1.0983288 -7.8045101 27
27.155167 -1.1165934 -7.8405113 27.5
27.237352 -1.078855 -7.7220283 27.861
23.139641 -0.58414692 -7.7443175 29.378786
23.227203 -0.71608484 -7.8491182 28.5
27.156326 -0.66178632 -7.7944851 29.25
27.256567 -0.62113595 -7.8481345 29.513834
50.390831 -0.42263603 -7.8675909 32.0825
50.492676 -0.49618596 -7.6684365 31
23.172209 -0.15339917 -7.8404403 31.5
23.220715 -0.27022591 -7.7847347 30.870962
50.532093 -0.18567289 -7.7549996 32.027332
51.087318 -0.2477944 -7.6390095 32.082001
-10.301965 0.23199169 -7.7854381 32.575783
23.141481 0.018875651 -7.8540959 32
23.217766 0.018006802 -7.6966062 32
50.446266 0.089731514 -7.9346495 33.0825
51.194717 0.25987893 -7.7908497 33.080502
51.518673 0.080258057 -7.6912384 33.084999
51.758663 0.26750809 -7.9439583 33.082001
-10.322118 0.6190902 -7.7804022 35.102932
51.039528 0.76304835 -7.7947788 34.080502
51.580994 0.79417187 -7.921217 34.082001
51.713135 0.5892874 -7.9151068 33.582249
-10.32079 1.0084171 -7.7959752 37.553272
-9.4475813 0.88399589 -7.80545 38.010502
-8.2154408 1.1034564 -7.7913642 37.673168
-7.9920893 0.99579597 -7.6869802 39.51025
-0.15054959 1.1910096 -7.7354155 43
0.67252898 1.1924101 -7.786953 39.435001
1.4805117 1.1745585 -7.7561636 36.050751
1.6707751 1.1872196 -7.7016926 43.599686
2.6050713 1.1511128 -7.6663313 42.8983
3.442297 1.1898618 -7.7619653 43.097
3.837635 1.1821961 -7.7673149 36.099499
4.9067845 1.1690968 -7.6196136 36.098999
5.3356018 1.1736971 -7.8267236 41.428665
5.9005065 1.1585665 -7.6063757 39.097
6.2329736 1.1587263 -7.8862472 40.760998
6.4814734 1.1687913 -7.7111063 40.094498
7.0865173 1.1492013 -7.7732201 38.429832
7.3961535 1.1431739 -7.7879162 42.090248
7.7766013 1.1458259 -7.6771917 40.693001
8.1539783 1.136797 -7.7577472 41.091499
8.5919247 1.1489127 -7.6314502 41.091
8.9486942 1.1922578 -7.6074638 41.091499
9.4863281 1.13616 -7.7842712 38.594002
9.8227329 1.1638417 -7.6679926 40.091248
10.300712 1.1595819 -7.7710629 38.094002
10.688866 1.139981 -7.7704964 40.091
10.930223 1.1282248 -7.7001276 39.591
11.453701 1.1489468 -7.7601671 40.088753
11.821321 1.1322972 -7.6846061 39.5895
12.622703 1.1348913 -7.7063999 39.754333
13.402006 1.0964146 -7.7914262 39.087502
13.922754 1.1135346 -7.7458906 39.088001
14.284824 1.1021734 -7.8555799 39.084999
14.544746 1.1223602 -7.7553482 38.688099
15.405915 1.1383045 -7.7838783 38.58725
16.166384 1.1147342 -7.8517046 38.088501
16.776411 1.1118426 -7.9712925 38.084
16.830276 1.1106148 -7.9354348 38.084999
17.252098 1.1193357 -7.8789139 38.084999
18.121735 1.1237735 -7.8410716 38.0835
20.90909 1.1172975 -7.656126 37.0825
21.450603 1.1046451 -7.945416 37.084
21.839384 1.0939291 -7.8128033 37.085167
-10.205012 1.2557447 -7.7008257 38.508999
-9.7336884 1.2912918 -7.8810797 40.511002
-9.3277721 1.30445 -7.7849274 40.009449
-8.9080801 1.3192652 -7.7181034 40.008999
-8.4125166 1.2933347 -7.6455755 43.0135
-8.2308159 1.2902615 -7.8704119 40.809803
-7.7232528 1.264228 -7.9023185 42.011002
-7.3245449 1.2935641 -7.8928561 41.509563
-7.0018282 1.2590396 -7.9807405 39.006001
-6.5316091 1.2603397 -7.8440671 42.437859
-6.3352118 1.2911556 -7.9881449 41.507751
-5.7300382 1.2785304 -7.811933 41.757126
-5.1001158 1.2778473 -7.9493542 37.002998
-4.7237659 1.2437153 -7.8788056 44.007751
-4.2305536 1.2934034 -7.8602943 42.005249
-3.7958834 1.2437278 -7.8129973 44.339336
-3.2165592 1.2603403 -7.9377022 40.002998
-2.9322338 1.2316952 -7.747942 40.002499
-2.3621182 1.2612491 -7.9431448 38.000999
-1.9353509 1.2140113 -7.7705116 45.33667
-1.0125628 1.2124803 -7.9628463 47.001999
-0.078770518 1.2122475 -7.9774952 37.102001
0.23360729 1.2159107 -7.8068047 37
0.54114002 1.2001544 -7.6089859 37.102001
0.92687994 1.2126884 -7.9316578 37.102001
1.6019757 1.2064568 -7.9427118 38.100498
2.1046641 1.2017261 -7.6728954 47.098
3.4169724 1.2109556 -7.8217998 43.0965
-6.4230132 -1.2110046 -7.4985371 18.011499
-5.9254065 -1.2153853 -7.2606945 20.007999
-5.2495513 -1.2104455 -7.4108338 19.674334
-4.8714681 -1.2174283 -7.5850182 21.006001
-4.6032596 -1.2099606 -7.4387422 20.672918
-4.2010851 -1.213529 -7.3870645 18.606548
-3.8303871 -1.2092564 -7.4282799 19.20545
-3.4364622 -1.2142773 -7.393126 19.145857
-2.9933641 -1.2199831 -7.4418683 17.335249
-2.5851343 -1.2237905 -7.472774 16.751625
-2.2407007 -1.2226604 -7.3969855 18.752001
-1.7959386 -1.2258191 -7.4006557 20.500957
-1.4091769 -1.2325541 -7.3497128 18.084375
-1.0191877 -1.2304895 -7.3175073 20.286535
-0.59256297 -1.2302053 -7.3652015 18.583647
-0.18453312 -1.2318783 -7.338655 19.871582
0.25718912 -1.2271308 -7.3387294 22.101667
0.58654463 -1.2348928 -7.3510842 19.751083
1.0083004 -1.2400597 -7.3758721 20.967388
1.4044931 -1.2520862 -7.3798552 15.04975
1.7213969 -1.2498144 -7.4152393 17.174875
2.1600461 -1.2474141 -7.3529677 18.9597
2.5782342 -1.252063 -7.4519157 17.75905
2.9081728 -1.251151 -7.3763781 20.323938
3.3840199 -1.2549418 -7.4366035 20.37825
3.7375689 -1.2576356 -7.4203515 19.408667
4.1684852 -1.2574296 -7.3995543 21.087173
4.6218762 -1.2718799 -7.3521657 20.595877
4.98419 -1.2712793 -7.3621516 20.428667
5.3556595 -1.2740577 -7.4915495 17.592937
5.7742076 -1.272584 -7.3683887 19.093042
6.1965384 -1.2850426 -7.400238 21.094
6.6556153 -1.2812033 -7.3781981 19.091749
6.9777799 -1.276087 -7.4243083 22.093689
7.4013343 -1.2721643 -7.3805876 21.842751
7.7676568 -1.2786345 -7.2985368 21.758833
8.1270523 -1.2980891 -7.3766575 21.091
8.565937 -1.3045372 -7.3508015 21.0905
8.9595222 -1.2793771 -7.4356666 21.924002
9.4883661 -1.2788125 -7.4879084 23.091
9.7728376 -1.2749221 -7.4568458 23.691601
10.176827 -1.275946 -7.3741775 23.758001
10.517004 -1.2647649 -7.4370852 25.092251
10.967323 -1.2803469 -7.3951797 23.089249
11.496427 -1.3031838 -7.3984561 23.088499
11.71781 -1.2866322 -7.4561563 22.087
12.246901 -1.2860951 -7.5203795 24.590126
12.684183 -1.3035635 -7.334084 24.589748
13.084893 -1.3083744 -7.5385776 25.0905
13.332996 -1.3123589 -7.4217215 22.585751
13.789248 -1.3194985 -7.2263575 24.087749
14.0445 -1.3122576 -7.5184345 25.0895
14.661543 -1.3232423 -7.279819 24.337
15.06553 -1.3011583 -7.4798899 26.09
15.412148 -1.3229268 -7.2493339 23.084
15.960747 -1.3213351 -7.3597379 24.084999
16.275724 -1.3113183 -7.3807898 25.0865
16.501091 -1.3323632 -7.4704585 24.084499
16.936214 -1.3130476 -7.2289181 25.085999
17.594255 -1.3147433 -7.4565873 26.087999
17.896633 -1.3220232 -7.4411654 25.084999
18.250601 -1.3366947 -7.2732673 24.083
20.010153 -1.3347995 -7.2294087 25.0825
23.033878 -1.3121791 -7.421659 26.0825
23.569679 -1.3519984 -7.2914257 27.084499
25.074364 -1.333135 -7.5409822 27.0835
25.527914 -1.3077098 -7.5971818 26.081499
27.16876 -1.3364435 -7.5227771 27
-10.277581 -1.0386577 -7.295301 26.257626
-9.7933817 -1.1679389 -7.5813699 23.011
-9.4305162 -1.1787746 -7.3572779 23.0105
-8.6557999 -1.1791592 -7.3192892 22.0105
-8.0862074 -1.185051 -7.4891324 23.508251
-7.9474778 -1.1771489 -7.3558412 22.009501
-7.3531733 -1.1660765 -7.3871365 25.505249
-6.9906473 -1.179935 -7.2607012 23.507
-5.2754316 -1.1936682 -7.4337029 18.674833
-4.9563961 -1.1945649 -7.4110703 24.004499
-4.7998767 -1.1906319 -7.5974288 18.00775
-4.1491828 -1.1833504 -7.4300203 24.00375
-3.7872751 -1.1876211 -7.5486345 22.004499
-3.4184804 -1.1858244 -7.4282689 25.002501
-2.8295279 -1.197821 -7.2133226 25.002001
-2.7728488 -1.1776757 -7.3512878 26.001499
-2.1319845 -1.1838409 -7.4291496 26.000999
-1.4826498 -1.1860888 -7.4156952 26.0005
-0.84797072 -1.197837 -7.5615101 26
-0.32467595 -1.1927565 -7.3959999 26.101999
23.053684 -1.1033072 -7.595717 27
27.125807 -1.010637 -7.4483252 28.062416
27.243076 -1.1667022 -7.329124 27
27.044388 -0.74439818 -7.3948932 29
27.256866 -0.59733099 -7.3883801 29.52025
50.746502 -0.50026631 -7.2346091 31
50.969215 -0.46974906 -7.312254 32.084999
-10.34076 -0.24187309 -7.329936 30.753
-10.400545 0.17723151 -7.2189369 32.004501
-10.295514 0.19091429 -7.3249207 32.502274
52.246201 0.16458772 -7.4895411 33.081501
-10.31091 0.60597748 -7.38273 35.272682
53.45573 0.50426197 -7.2966676 33.078999
-10.287612 0.98170024 -7.3715434 37.642902
-9.4191217 0.86798519 -7.3599043 37.511253
-1.743595 1.1985005 -7.295846 42.001999
-1.3844795 1.1933823 -7.3084083 45.002251
-1.0273914 1.1853671 -7.2951298 45.001625
-0.53123516 1.1856104 -7.3649445 45.000751
-0.15422738 1.1926178 -7.3040986 44.000168
0.24258946 1.1737574 -7.3607149 41.826439
0.67116392 1.1839501 -7.3844447 43.101063
1.0215087 1.1847173 -7.4545884 42.767334
1.4652857 1.1815773 -7.3978167 42.099998
1.7292795 1.1809485 -7.2725873 41.099998
2.1991665 1.1850225 -7.4650311 45.098164
2.5655384 1.1702554 -7.3838739 43.697952
3.4992847 1.1823282 -7.5132356 45.096001
3.7964046 1.1868213 -7.4556141 43.096375
4.1779494 1.1747576 -7.4874725 41.097164
4.5594311 1.1795727 -7.4998608 41.0965
4.9902234 1.1745557 -7.5264335 41.0965
5.4236403 1.1629794 -7.4818101 43.842812
5.9271059 1.1820221 -7.5584517 43.592247
6.2373066 1.1625651 -7.5211906 41.343498
6.6196132 1.156197 -7.5218983 40.760834
7.0446663 1.1646851 -7.4959736 39.844749
7.2131367 1.1824927 -7.552763 42.5905
7.8301258 1.1784884 -7.4774389 38.096001
8.117485 1.1511769 -7.449028 41.091652
8.5209017 1.1497755 -7.5993814 40.093498
8.9989443 1.1419338 -7.4801788 40.092304
9.9301472 1.1241637 -7.5257816 39.092999
10.522188 1.1498137 -7.5427084 40.090248
10.94168 1.1407775 -7.4323087 40.422333
11.792185 1.1402128 -7.5868421 40.087502
12.761354 1.1125175 -7.3673825 40.085499
13.978026 1.1149091 -7.5679746 39.087002
14.537798 1.1176956 -7.4682789 39.085999
15.096184 1.1180537 -7.3234887 39.084999
15.364519 1.1366643 -7.559371 38.0895
15.692554 1.1138372 -7.5842404 38.089001
17.309238 1.1163523 -7.5009322 38.084667
17.65798 1.1089705 -7.4547048 38.084
18.20492 1.1120787 -7.5495634 38.086498
21.748169 1.1025667 -7.5023675 37.083
22.126873 1.0823038 -7.2993941 37.082001
-10.197174 1.2835909 -7.3066778 39.257626
-9.8201265 1.2960348 -7.3884449 39.759876
-8.7744198 1.2999043 -7.591713 37.005501
-8.3756599 1.2736708 -7.4162245 41.51125
-7.3857932 1.2730997 -7.5510459 42.009499
-6.9001169 1.2644519 -7.5702429 39.005501
-6.5168619 1.2333013 -7.3717527 43.011002
-6.3300176 1.2457695 -7.2620816 42.008999
-5.6443334 1.2375159 -7.4623904 42.508499
-5.2629747 1.2451262 -7.3587751 39.004002
-4.9885616 1.2334231 -7.2841573 44.007999
-4.7118397 1.2385035 -7.4283485 42.339497
-4.1393766 1.2410941 -7.3115063 42.505501
-3.7321057 1.2424293 -7.3264151 44.380997
-3.3673022 1.2504869 -7.2622018 43.921665
-2.9959681 1.2276704 -7.2926826 46.756001
-2.5890615 1.2327983 -7.2616515 45.204247
-2.1795468 1.2300818 -7.2593207 45.003448
-1.7942847 1.2265434 -7.2935486 45.752937
-1.4248394 1.2321784 -7.2931075 45.502167
-0.99457681 1.2390904 -7.318861 45.501373
-0.61868274 1.2226331 -7.3237686 45.250687
0.11853518 1.229525 -7.3598847 44.935169
0.49564904 1.2344465 -7.3708129 44.901253
1.0977143 1.2207097 -7.3949051 45.974998
1.4358401 1.226934 -7.3864975 46.099377
2.1573484 1.2318774 -7.4408207 44.765125
2.5360854 1.2447097 -7.3831019 45.847435
3.0813937 1.2213585 -7.4779878 47.096001
3.3177636 1.231959 -7.4463711 43.930164
4.2024317 1.2325991 -7.4370637 44.166714
4.4506989 1.2148982 -7.3959093 45.594002
5.0327148 1.2327522 -7.5071888 43.427502
5.2785473 1.2105727 -7.5253859 41.595501
5.9569812 1.2092099 -7.5381427 43.092499
6.2355075 1.222331 -7.4923863 44.424831
6.977016 1.2025659 -7.5744271 43.0905
7.2453809 1.2042009 -7.3843918 43.09
60.11673 1.2988409 -7.4723673 35.081001
-7.3338809 -1.2059884 -6.9786601 19.011499
-6.6003709 -1.2122741 -6.9038153 25.005501
-6.1683598 -1.2218525 -6.9915304 17.011375
-5.9723811 -1.2154168 -7.1620011 17.510124
-5.2346458 -1.232913 -6.9480371 16.0105
-4.985076 -1.2242782 -6.9721956 16.758875
-4.6363726 -1.222212 -7.0011687 17.839293
-4.2382917 -1.2240906 -7.0484772 17.289249
-3.8479016 -1.2328501 -7.0153084 16.378
-3.4644957 -1.2211616 -6.9801488 20.003458
-3.0013516 -1.226105 -6.9967856 18.645502
-2.5357451 -1.2231593 -7.0496469 19.502125
-2.1946039 -1.2376111 -7.0064712 18.728819
-1.7560301 -1.2382396 -6.9982476 17.767817
-1.3955863 -1.2445142 -7.0036945 18.855042
-0.988837 -1.2524221 -6.9556909 18.167276
-0.60831952 -1.2467824 -6.9923372 18.259592
-0.17362294 -1.2533358 -7.034739 17.887751
0.21919249 -1.2414515 -7.08494 22.584833
0.62429893 -1.2559357 -7.0271182 18.750874
1.0039279 -1.2552793 -7.0067034 18.920525
1.4203267 -1.2630107 -7.0319858 19.146145
1.7391741 -1.2602322 -7.046711 18.76985
2.1664987 -1.2637197 -7.0310922 20.717739
2.533463 -1.2726477 -6.9712644 18.065666
2.9779229 -1.2728748 -6.9745345 19.98959
3.3965287 -1.276878 -7.039712 18.712606
3.7688065 -1.2780399 -6.9675651 20.21921
4.1495619 -1.2803437 -7.0122976 18.560469
4.586802 -1.2801523 -7.000031 19.397459
5.029839 -1.2844034 -7.0082459 17.244583
5.3722959 -1.2847347 -7.0135674 19.49395
5.7492356 -1.2911084 -6.9822311 21.29455
6.2134957 -1.2795843 -6.9751763 21.2939
6.6120276 -1.2813025 -7.005806 19.758833
7.0259495 -1.2816614 -6.9909115 21.092625
7.3980637 -1.2846099 -6.9260879 21.292202
7.9026346 -1.2835613 -7.0007811 20.090374
8.3855104 -1.2878442 -6.8059006 22.091499
8.4353914 -1.3041141 -7.1181917 21.591249
8.9566202 -1.3048224 -6.9258866 22.090998
9.3360405 -1.2815614 -7.1413422 22.424002
9.7360392 -1.2906208 -6.9109516 22.4235
10.277414 -1.2884822 -7.0484567 23.090166
10.715129 -1.3007311 -6.9448295 24.091166
11.129227 -1.2811866 -6.9754744 23.5895
11.343346 -1.2873797 -7.0866375 23.088749
11.839877 -1.3073831 -6.943275 23.088165
12.233861 -1.3075331 -6.917273 22.42
12.618238 -1.2923514 -7.0162492 22.085251
13.052316 -1.3113524 -6.8533773 25.0905
13.417898 -1.3170617 -7.109148 23.587
13.739803 -1.3232058 -6.9376526 23.085999
14.359608 -1.335356 -6.8827176 23.084999
15.015544 -1.3358179 -6.8951831 24.086166
15.206158 -1.3165252 -6.8135033 25.0875
15.814693 -1.338707 -6.8543015 23.0835
16.393496 -1.3367662 -6.9501634 24.084499
16.792404 -1.3317733 -6.9845877 24.584999
18.37199 -1.3330456 -6.9758086 25.084499
19.04491 -1.3210824 -7.1085777 25.584751
19.891211 -1.3456123 -7.0575023 25.083
21.532654 -1.328618 -7.1055627 25.082001
25.958395 -1.3182873 -6.8658986 26.080999
-10.208462 -1.0543264 -7.0344372 25.342001
-8.8866987 -1.0759435 -6.9006033 25.257626
-8.5518064 -1.1066096 -6.9655647 24.133375
-8.2934608 -1.1860523 -7.0147476 20.511749
-7.7658854 -1.1903625 -6.807137 20.011
-7.4362655 -1.193523 -7.0054011 21.675833
-6.9599762 -1.1964669 -6.9722123 23.507
-6.652626 -1.1902283 -7.0193939 26.004501
-5.6550746 -1.0965309 -6.9495616 20.341667
-5.3520288 -1.1000916 -6.9611235 22.228806
-5.098474 -1.0558382 -6.8786182 22.506332
-4.561451 -1.1939803 -6.8961749 26.50275
-4.1775236 -1.196973 -6.8409462 25.003
-3.9833915 -1.1927047 -7.0762892 25.003
-3.1587183 -1.1962395 -6.9350004 26.002001
27.154495 -1.0184108 -6.9528637 27.75
27.245632 -1.1639733 -7.061377 27
-10.248104 -0.47889173 -6.9160395 29.503
-4.6267428 -0.79718232 -6.9762611 21.009501
-4.2783298 -0.47569764 -7.0353971 26.950277
27.170326 -0.74732703 -7.0266194 29
27.248184 -0.52940804 -7.0156255 29.693832
-10.286141 -0.21667244 -6.9461641 30.646143
-4.2681532 -0.24255829 -6.9625988 28.589167
51.063438 -0.34466395 -7.0383196 32.081501
52.183907 -0.005427463 -7.0323777 32.078999
-10.293924 0.25471747 -6.9576149 32.922009
-4.3229289 0.1866454 -6.9255548 33.291431
-10.444952 0.49539196 -6.9886436 33.004501
-10.303907 0.6145283 -7.0057034 35.01656
-4.5509534 0.55549037 -6.8433757 37.007
53.060543 0.4837957 -7.0059218 33.078999
54.050613 0.67567408 -7.0827312 34.084499
-10.289302 0.96914756 -6.9678626 38.197155
-9.3962259 0.88021129 -7.0222855 37.51033
-7.921144 1.0421046 -7.0659637 40.01067
-1.077949 1.1949065 -7.142427 45.001499
-0.15424499 1.1827189 -7.1671309 41.734669
0.27466357 1.1941648 -6.8272643 41.102001
0.76283747 1.193911 -6.989769 47.600498
0.92844772 1.1739224 -7.028585 44.100666
1.7305368 1.1682109 -6.9941878 46.098663
2.2267635 1.1824714 -6.8355637 39.099998
2.6247072 1.1464759 -6.9118943 42.723373
2.9136248 1.1761684 -7.175951 42.098
3.5487735 1.1849297 -7.0671763 46.095001
3.6100683 1.173148 -6.8789716 47.094501
4.4717083 1.1572212 -6.919435 44.760498
5.4621282 1.1536132 -7.1391416 45.091999
6.3083639 1.1535121 -6.9892392 43.591248
7.3198218 1.1447841 -7.020957 41.592003
8.1332169 1.1211065 -6.9762983 42.088501
9.8361549 1.1362436 -7.0346246 41.088501
10.627317 1.1212478 -6.8228464 39.092499
10.817097 1.1090883 -6.8151722 39.091999
11.420975 1.1331621 -6.9416604 40.089169
11.770348 1.1212366 -6.8552728 40.087833
12.521792 1.1046634 -6.8761821 39.587875
13.353571 1.1280491 -6.9916143 39.58725
13.694115 1.1461318 -6.8271031 40.084499
14.185634 1.0928348 -6.9590039 39.085999
14.54361 1.0954367 -6.8930392 39.086334
15.404536 1.1097935 -6.9593716 38.752666
16.202093 1.0984681 -7.0798483 38.088249
17.075062 1.1057162 -6.9391699 38.08625
17.287289 1.1046896 -6.8851032 38.0835
17.834511 1.1092116 -6.9799271 38.085499
18.190512 1.105291 -7.0017509 38.084167
20.896259 1.1046853 -6.9315495 37.082001
21.834225 1.0751534 -7.0208387 37.084251
22.939135 1.0491021 -7.0222578 37.084499
-10.171327 1.2820199 -6.9649401 42.015747
-9.7799997 1.2798967 -7.1151104 39.008999
-9.3279409 1.3068212 -7.0522137 40.010498
-8.9629745 1.2820002 -6.9057698 40.511002
-8.5549984 1.2593412 -6.9749584 42.514
-8.2671824 1.2883228 -6.9650345 42.762497
-7.411943 1.2614274 -6.9962587 42.210751
-7.0378103 1.2573514 -7.0180578 42.511002
-6.5672989 1.2578326 -6.9248652 42.509624
-6.2531924 1.2632989 -7.0751576 42.508873
-5.7690234 1.2466377 -7.0761371 43.342167
-5.4201517 1.2709734 -7.121254 43.408104
-5.0171709 1.2524654 -7.0812759 43.007301
-4.5551114 1.2568554 -7.125833 44.340748
-4.2710667 1.260756 -7.1686883 44.673832
-3.7069595 1.2601455 -7.1118989 46.173504
-3.5197272 1.2353187 -6.9383316 40.50325
-2.8915558 1.2071284 -6.9280434 45.004833
-2.6750548 1.2565806 -7.1950521 45.00425
-1.8506179 1.2297125 -7.0306253 46.503502
-0.39576578 1.2361268 -7.189611 46.0005
1.214813 1.2225609 -6.9023676 48.099499
1.641228 1.220819 -7.0295434 46.098999
3.4773619 1.2218788 -7.0538325 45.096001
6.1893754 1.2022327 -7.1261263 45.091
-8.1983728 -1.2070751 -6.6248918 19.0145
-7.7237816 -1.2063498 -6.6719069 20.011333
-7.4857092 -1.207886 -6.5464621 20.260876
-6.9716501 -1.2039869 -6.6934724 21.009001
-6.6051798 -1.2049069 -6.5134392 26.50425
-5.7491965 -1.2282763 -6.5116982 16.34425
-5.3323903 -1.2144419 -6.6076584 18.00885
-5.014008 -1.2235358 -6.626729 19.005499
-4.6248446 -1.2311205 -6.6640663 18.002001
-4.2335377 -1.226519 -6.5458126 18.504915
-3.8404238 -1.2241632 -6.5956168 18.419916
-3.4367254 -1.2368109 -6.6002111 16.788427
-3.003993 -1.2391711 -6.5842109 18.251499
-2.6453066 -1.2425964 -6.6249676 17.252188
-2.223474 -1.2406697 -6.5909319 19.468166
-1.8328209 -1.2470376 -6.572536 17.905762
-1.4016201 -1.2573664 -6.6137209 14.933985
-1.0128766 -1.2644733 -6.6558933 12.5
-0.59404224 -1.2645891 -6.5545659 16.5835
-0.25414222 -1.2590516 -6.5533791 18.060791
0.23490041 -1.2492739 -6.6476517 22.10181
0.6039061 -1.2701368 -6.6130199 17.979916
1.0011088 -1.2773553 -6.5453248 14.839055
1.3858157 -1.2787641 -6.5644403 15.299876
1.7505789 -1.2747346 -6.6184797 15.8399
2.1440599 -1.2875745 -6.5789232 15.039549
2.5465643 -1.2859943 -6.5458488 15.272634
2.9644592 -1.2865741 -6.6550055 16.439301
3.3442636 -1.2864408 -6.6101542 18.811314
3.8133483 -1.2964756 -6.5905304 17.810375
4.2094297 -1.2951791 -6.5400696 17.434906
4.5516315 -1.2934482 -6.6519589 17.321188
4.9437113 -1.2977102 -6.5323439 16.797375
5.3862267 -1.2904406 -6.6198478 20.0578
5.8143768 -1.2978891 -6.5754552 19.331905
6.2341089 -1.2909416 -6.529747 20.593376
6.6605206 -1.2865078 -6.5746531 21.426723
6.9653792 -1.2931139 -6.481204 20.091999
7.3951807 -1.2872901 -6.6244984 17.588875
7.828331 -1.2846223 -6.5930653 21.841999
8.2483196 -1.2871122 -6.5462732 21.090624
8.6413231 -1.3024298 -6.5140891 20.089167
9.3029222 -1.3028697 -6.5906219 22.424166
10.131825 -1.2997957 -6.6759667 22.422998
10.61582 -1.3062155 -6.586185 21.587749
11.106078 -1.3081937 -6.6215868 23.59
11.329822 -1.2981166 -6.5079408 23.422667
11.823881 -1.3038943 -6.4538307 23.589001
12.171672 -1.3079137 -6.5284615 22.587
12.627625 -1.3170959 -6.4440565 22.58625
13.109045 -1.3128514 -6.5154247 22.084499
13.871641 -1.3237993 -6.6443992 23.83725
14.097514 -1.3296292 -6.4353132 24.087
14.742679 -1.3512021 -6.513133 23.084499
15.145796 -1.3464653 -6.4182887 23.0835
15.466681 -1.3396648 -6.5783992 24.085501
15.771803 -1.3351465 -6.4994946 25.087
16.240667 -1.3572724 -6.454658 23.083
16.752291 -1.3471558 -6.4896741 24.084
17.022312 -1.3406477 -6.4496007 24.0835
17.281548 -1.3387389 -6.6746721 24.584251
18.432322 -1.3342445 -6.6976571 24.0825
18.877512 -1.3469765 -6.5143695 25.084
19.618395 -1.3363123 -6.5233645 25.083
20.172153 -1.3432777 -6.521574 25.082251
21.925129 -1.3398348 -6.4963555 25.081499
-10.229871 -1.0129099 -6.6290722 26.632189
-9.6476326 -1.1719384 -6.5654144 20.514
-9.2560539 -1.1734729 -6.6417246 20.514
-8.9216366 -1.1748898 -6.5568295 21.012249
-8.6282043 -1.1729103 -6.7074761 22.676666
-8.1255999 -1.1907963 -6.5145464 23.008875
-7.7265759 -1.1873333 -6.6666708 23.008251
-7.4945474 -1.1820024 -6.4822693 28.0035
-6.9884415 -1.1952996 -6.5664811 23.3405
-6.6288619 -1.1959171 -6.7366915 22.007999
-6.1763277 -1.1885581 -6.6247916 25.504499
-5.3560457 -1.1235212 -6.6488752 25.004499
-4.7731075 -1.1977103 -6.6882067 26.00325
-3.8214202 -1.1937381 -6.6060905 26.002501
-3.0831203 -1.1927093 -6.5178604 26.002001
27.210909 -1.1597571 -6.7856479 27
-10.220153 -0.63725334 -6.6418252 28.838249
-4.1608567 -0.59405684 -6.5611024 24.637249
27.344076 -0.62695378 -6.6888704 29
50.721836 -0.51523638 -6.5560699 31.079
51.103531 -0.50609428 -6.7947164 31.079
53.997936 -0.63036221 -6.6948748 31.0795
-10.255707 -0.20433389 -6.5510311 30.75794
-4.2052503 -0.21112931 -6.549643 28.796394
51.37394 -0.17414951 -6.5932741 32.08025
-10.486674 0.10764872 -6.533535 32.004002
-10.290832 0.23158979 -6.590344 32.825336
-5.9691525 0.35091099 -6.5220313 35.007999
-4.2589698 0.14703475 -6.5919785 32.794834
52.153042 0.18297631 -6.795064 33.081501
52.427757 0.26505446 -6.4128847 33.080002
-10.506545 0.66658115 -6.4857483 33.003502
-10.278454 0.61491877 -6.6001005 35.013626
-4.4699759 0.51678789 -6.6439567 37.307899
-4.3829136 0.42613471 -6.5007558 36.006001
-10.28369 0.97174621 -6.5947409 37.281864
-9.3783579 0.87448293 -6.53439 38.178917
-7.9478359 0.9873538 -6.545794 40.345001
-3.8125744 1.1792775 -6.4561124 40.003666
-3.0304546 1.1868336 -6.4497032 42.004128
-2.6757038 1.1816276 -6.4047585 40.002499
-2.2123511 1.1769782 -6.4576812 41.002499
-1.9069703 1.1635969 -6.5312891 39.584877
-1.3658544 1.1741565 -6.5035515 45.144184
-1.0435867 1.1700157 -6.447619 43.778721
-0.67635649 1.1624331 -6.5126405 45.000999
-0.17964101 1.1660407 -6.5007701 43.63781
0.29081994 1.1785605 -6.488843 43.881302
0.55412608 1.1783423 -6.5004568 43.391102
0.99850714 1.1740957 -6.5417175 43.713093
1.4708611 1.1775765 -6.5196981 43.587593
1.6944053 1.1635773 -6.5448699 42.299549
2.1244638 1.1812952 -6.5691566 41.474594
2.5608759 1.1564044 -6.5064144 44.160282
3.0976913 1.1840976 -6.5968447 42.8978
3.4227126 1.1780441 -6.5714951 43.263531
3.8435795 1.1793921 -6.5952415 41.811497
4.1825228 1.1772583 -6.5817833 42.97084
4.6064534 1.1703476 -6.6213193 42.470749
5.0288973 1.1627102 -6.6251888 44.093311
5.3748493 1.1704149 -6.5610938 43.842999
5.8119421 1.1519403 -6.6347575 38.597748
6.2283659 1.1442423 -6.6024847 43.291801
6.6785769 1.1597145 -6.610229 45.0895
6.9749804 1.1641927 -6.6764593 41.842377
7.3897672 1.129631 -6.6337337 41.757751
7.7767982 1.1451286 -6.5929594 41.591251
8.1650858 1.1198151 -6.698494 40.758499
8.7213659 1.1199529 -6.6353045 41.340126
9.059495 1.1152796 -6.564857 40.092667
9.4678745 1.1312401 -6.6759601 41.0895
9.8550673 1.1358093 -6.6776338 40.091499
10.184296 1.1243963 -6.5158076 41.087753
10.820525 1.1355659 -6.7872243 41.087002
11.403918 1.1060789 -6.7668276 40.088501
11.840533 1.1340936 -6.578825 40.337624
12.228548 1.1204267 -6.7438884 40.086498
12.775344 1.1186694 -6.5402942 40.085331
14.637729 1.0949106 -6.534481 39.084831
15.131817 1.1113064 -6.750432 39.087502
15.500124 1.0984094 -6.6716762 38.58625
16.393259 1.0920218 -6.4445148 38.088001
17.86709 1.1101396 -6.4375567 38.0835
18.308361 1.0981723 -6.6042094 38.0825
21.920721 1.0742742 -6.6419702 37.083332
22.34408 1.0772014 -6.6147423 37.081501
22.850779 1.0869249 -6.5375118 37.0835
-10.260177 1.2580175 -6.5356674 37.673832
-9.2967949 1.3034434 -6.6722345 42.514999
-6.5827947 1.2347221 -6.5564656 43.011002
-6.2492833 1.2273343 -6.57335 39.005001
-5.6359797 1.223531 -6.5869632 41.5075
-5.5382261 1.2541995 -6.6821489 44.008999
-4.6955175 1.2214894 -6.590425 47.009998
-4.1610804 1.2222219 -6.5758905 38.002499
-3.8172023 1.2127539 -6.7951231 44.006248
-2.7129488 1.2122654 -6.4288626 47.672501
-1.6458791 1.2194251 -6.4095397 45.001999
-1.3914825 1.236553 -6.4014673 48.200752
-0.81243801 1.2479177 -6.4117885 46.000999
-0.40067559 1.2006201 -6.4363189 45
-0.36164653 1.2361457 -6.4158659 47.5005
0.20106871 1.2451544 -6.4449439 48.581402
0.55577224 1.2574058 -6.4553051 49.817211
1.1141874 1.2358119 -6.459486 45.950188
1.4423684 1.2547063 -6.4901576 48.375187
2.1382093 1.2310704 -6.5002942 45.14603
2.4471192 1.2655039 -6.5213895 48.846878
3.1125767 1.2107587 -6.5059772 44.596748
3.4277039 1.2459812 -6.5489135 47.428333
3.9636474 1.2288024 -6.5438409 48.093498
4.2411075 1.2537045 -6.5681701 47.093502
4.4472184 1.235055 -6.5633626 45.09425
5.1373448 1.2450266 -6.5877342 46.591751
5.3957605 1.245688 -6.5631666 46.091499
6.0994673 1.2161112 -6.6396976 44.091751
7.1575284 1.2066373 -6.6625147 45.089001
7.2728043 1.2268745 -6.5071783 45.089001
8.1753807 1.2037423 -6.7168574 43.088001
53.094376 2.2299392 -6.5903597 37.080002
-8.5522757 -1.2016072 -6.0819535 19.015499
-8.3702297 -1.2029783 -6.348619 19.014999
-7.6549053 -1.2083356 -6.2362881 19.512249
-7.3053145 -1.211947 -6.0280128 19.01125
-6.9449334 -1.2104366 -6.1658325 18.41165
-6.5285811 -1.2089126 -6.2116165 21.008499
-6.1487322 -1.2253461 -6.277494 25.504
-5.3690124 -1.2288551 -6.0794277 17.002333
-4.9550729 -1.220378 -6.1840506 17.6043
-4.5664043 -1.2328495 -6.1701961 17.504416
-4.2184758 -1.2295754 -6.1941471 18.781166
-3.8623149 -1.2358687 -6.2118697 17.802999
-3.4803998 -1.2368275 -6.1866679 17.073929
-2.9990013 -1.2379969 -6.1834798 19.439032
-2.5619109 -1.2550623 -6.1201749 17.19212
-2.1969259 -1.2627714 -6.1168852 17.906118
-1.767996 -1.2655771 -6.1813984 14.945068
-1.4083625 -1.260133 -6.1987128 17.348097
-1.0355425 -1.2659156 -6.2440124 17.05065
-0.62860149 -1.2682028 -6.1955709 17.733734
-0.23872398 -1.2694623 -6.2141762 16.021929
0.18993182 -1.2670072 -6.2193494 20.651426
0.64162058 -1.2764924 -6.2657566 18.142374
1.0500903 -1.2803931 -6.2126126 18.178387
1.4529806 -1.2818944 -6.1681066 17.993608
1.8192878 -1.2911136 -6.156055 15.862282
2.1781929 -1.2839919 -6.1810074 19.132971
2.5892019 -1.2917225 -6.1067467 17.592558
2.9825003 -1.2968545 -6.2021394 18.13949
3.3995106 -1.2923744 -6.1429753 19.186407
3.8013988 -1.2953207 -6.1713347 15.738851
4.1242261 -1.3034812 -6.2348151 16.699167
4.6397486 -1.300728 -6.2012439 16.755249
4.9694262 -1.2954452 -6.2657957 20.495152
5.3443794 -1.307296 -6.1577706 16.85605
5.8145237 -1.2945154 -6.2234087 23.096001
6.18855 -1.302207 -6.1709352 18.674299
6.5547357 -1.3061477 -6.1359901 16.423
7.0496154 -1.2931851 -6.1654692 20.09157
7.4343438 -1.278869 -6.203064 23.260416
7.8474064 -1.2694596 -6.1146564 26.095501
8.2195053 -1.2781448 -6.239944 24.59425
8.6892128 -1.3029149 -6.2007322 22.091251
8.9811907 -1.292859 -6.1620355 22.42425
9.6649246 -1.3073577 -6.3152394 22.423666
10.17738 -1.3069201 -6.2309937 21.421333
10.68479 -1.3011786 -6.1857247 23.089748
11.063861 -1.3111428 -6.1420255 20.752501
11.484677 -1.3182424 -6.1874905 23.088499
11.814503 -1.3146758 -6.1740074 22.5875
12.214819 -1.3053845 -6.1935263 21.585251
12.696543 -1.3161608 -6.1040535 24.088499
12.98298 -1.3278589 -6.1069717 22.585751
13.285397 -1.3127929 -6.0950217 22.084
13.953941 -1.3193207 -6.0395765 25.0895
14.147934 -1.3252089 -6.2066813 22.584249
14.486719 -1.3321817 -6.2121067 24.587749
14.987892 -1.3555058 -6.063827 23.084
15.527814 -1.3414408 -6.3959417 25.087999
15.944539 -1.3547896 -6.2111907 24.084999
16.185848 -1.3417723 -6.0578394 25.0865
17.173513 -1.3634634 -6.0523372 24.0835
17.515982 -1.3383341 -6.1265173 24.58375
18.755079 -1.3431916 -6.1703987 24.082001
20.176741 -1.3602481 -6.0429444 25.0825
23.732244 -1.3156444 -6.2648439 26.080999
26.163485 -1.355499 -6.1550713 27.0825
-10.189365 -1.0382681 -6.1410089 24.677
-9.928524 -1.1574104 -6.157052 25.008251
-9.3185511 -1.1773846 -6.2736263 21.01375
-9.0118179 -1.1728395 -6.2426877 21.345499
-8.5952902 -1.1785921 -6.2074699 22.2103
-8.1612129 -1.1936741 -6.2626772 19.512501
-7.8049731 -1.1958164 -6.2049775 20.011625
-7.3428879 -1.1872177 -6.2753887 22.009001
-7.0934892 -1.1831362 -6.0835972 25.005501
-6.6577911 -1.1825482 -6.2451081 26.004333
-6.0622835 -1.1922648 -6.2073803 28.002501
-5.8388257 -1.1910182 -6.0641251 26.0035
-5.3725972 -1.1432126 -6.1473351 21.507
-5.1069546 -1.1996022 -6.2300301 26.003
-4.4711809 -0.82969272 -6.0362082 24.006001
-4.3632593 -0.80380243 -6.0738678 24.006001
-10.223228 -0.5313403 -6.2180066 28.63941
-4.4445548 -0.7696718 -6.1406517 28.003
-4.1519012 -0.55732793 -6.1959581 25.206873
53.038383 -0.54383552 -6.0313778 31.078501
-10.24336 -0.1701842 -6.1899881 30.431402
-9.9605665 -0.060232002 -6.06042 31.011499
-4.1766396 -0.19373308 -6.2535825 29.536863
51.951981 -0.2357136 -6.2656059 32.080002
52.204205 -0.097798124 -6.372345 32.079498
53.284538 -0.028278895 -6.1082339 32.078499
-10.255774 0.19847925 -6.178021 32.65876
-4.4252186 0.38416001 -6.2178783 37.009998
-4.2564445 0.19202904 -6.1923146 33.520985
52.384651 0.26499492 -6.371809 33.081501
59.314522 0.30388471 -6.0687113 33.079498
-10.257836 0.58630711 -6.2148023 35.232018
-4.4275904 0.51790756 -6.1212888 37.173832
-4.3849983 0.49272361 -6.2129035 36.34
-10.272696 0.95406419 -6.1578956 38.508789
-9.3698864 0.89191341 -6.2997117 38.512497
-7.9314098 1.009864 -6.1768804 40.344669
-7.4428549 1.1776978 -6.1438065 35.003502
-5.0137615 1.1866647 -6.0709014 35.002499
-4.5865135 1.1967119 -6.2988682 45.005497
-4.1137424 1.1868604 -6.380126 42.005501
-3.7855606 1.1820621 -6.295155 40.0042
-3.5838907 1.1898712 -6.353343 36.001999
-2.9066546 1.1877749 -6.1962013 41.836914
-2.5622916 1.1774088 -6.339756 40.503372
-2.2174232 1.1864222 -6.314414 40.202248
-1.8703114 1.1846323 -6.2769456 45.101723
-1.4535908 1.1800773 -6.3430314 38.221302
-1.0022069 1.1690925 -6.2285838 41.223331
-0.57666504 1.1671834 -6.2234192 38.900627
-0.10419674 1.1665142 -6.2605276 44.394604
0.011553168 1.1787438 -6.3341475 43.102001
0.7659418 1.1880215 -6.3619962 45.100498
0.87765437 1.1756415 -6.1909256 45.433918
1.3416023 1.1958073 -6.2022057 37.102001
1.6954105 1.1746502 -6.2622771 46.348747
2.6726232 1.1447878 -6.1025867 44.847248
3.5536256 1.172384 -6.3141165 43.096748
3.6308537 1.1714249 -6.1391563 44.595749
4.5226169 1.153096 -6.2681155 45.093498
4.9201245 1.1632286 -6.0066762 43.094002
5.4546499 1.1474352 -6.2683682 42.693798
6.2961793 1.1479501 -6.3332639 41.427334
6.4810567 1.1477002 -6.3414631 45.089752
7.2789664 1.193442 -6.3690133 45.088501
8.1678648 1.1411326 -6.2677689 41.5905
9.0795364 1.11222 -6.3277645 41.0905
11.0602 1.1161151 -6.2653446 40.421497
11.790296 1.1110588 -6.1426692 40.088333
12.016952 1.1012099 -6.0355864 40.087502
12.539178 1.0832042 -6.0289283 39.09
12.97034 1.103344 -6.1265063 40.084499
13.414383 1.0839815 -6.0686703 39.089001
13.697884 1.1251506 -6.2984967 40.084
14.63037 1.0814496 -6.1694012 39.086498
15.142291 1.0827806 -6.0191002 39.087002
15.39883 1.0807757 -6.1329069 39.0835
15.839005 1.0940238 -6.1724596 38.088501
17.069792 1.0826255 -6.0595541 38.087002
17.281256 1.0962073 -6.3645601 38.0835
18.125509 1.101642 -6.3681011 38.084
20.675179 1.0824569 -6.1600652 37.081501
22.140285 1.0607483 -6.1646028 37.085499
22.491081 1.0701429 -6.1760569 37.084999
22.885927 1.0887417 -6.0226493 37.081001
23.414248 1.0526301 -6.3733845 37.084
59.564896 0.8366397 -6.3284431 33.078499
-9.9260635 1.2763728 -6.2167053 39.008999
-9.2411261 1.243247 -6.1870565 39.008499
-9.0074797 1.2499461 -6.1039796 41.346165
-8.6858711 1.2476461 -6.1024818 36.003502
-8.2068281 1.2591777 -6.1046395 41.678295
-7.7846985 1.2245642 -6.1621881 39.006832
-7.3684106 1.2474492 -6.1255112 40.809174
-6.9648414 1.2524132 -6.1375103 42.00975
-6.6030879 1.2353153 -6.1865101 41.383373
-6.235332 1.2489052 -6.1757507 40.810379
-5.8044653 1.2244194 -6.1919832 41.570065
-5.4173579 1.2472159 -6.199904 42.769562
-5.0062246 1.2333345 -6.2100067 41.406052
-4.5855174 1.241904 -6.23387 42.041569
-4.184648 1.2414312 -6.2524314 42.380497
-3.7792068 1.2311221 -6.2306442 43.066013
-3.4187326 1.2469826 -6.2795734 44.686085
-3.0846896 1.221589 -6.2963552 41.114609
-2.5890787 1.2410169 -6.3152957 43.963692
-2.2672117 1.2517735 -6.2938752 46.08717
-1.7557831 1.2634528 -6.3413014 46.859035
-1.418416 1.2416079 -6.3428268 45.00211
-0.91007406 1.2418021 -6.3099508 49.301899
-0.54556805 1.2307634 -6.2516952 50.501171
-0.28881758 1.2281671 -6.3087063 46.500252
0.19234067 1.2089896 -6.3577323 39.602001
0.71246278 1.2310313 -6.3152375 44.600998
0.97907382 1.2093542 -6.0259318 48.099998
1.3856372 1.2731546 -6.3716788 48.099251
1.7046187 1.2159431 -6.1237974 50.598
2.3200927 1.235841 -6.2040372 46.0975
2.5692294 1.2165059 -6.3169174 45.431
3.2685533 1.2209117 -6.2340646 45.0965
4.5120993 1.2164317 -6.2266474 47.092499
5.1944885 1.2277296 -6.3992648 45.092999
6.2597561 1.208817 -6.3555865 45.091
-8.7852936 -1.2084144 -5.8499231 19.016001
-8.0212021 -1.2051153 -5.6847754 18.015499
-7.6575794 -1.2083411 -5.659327 19.011999
-7.512804 -1.2062936 -5.6585932 19.511501
-7.1303048 -1.2094119 -5.7298989 20.011
-6.5702553 -1.2196443 -5.7730036 18.61075
-6.1640043 -1.2225227 -5.8176136 20.4062
-5.2657847 -1.2266223 -5.8358841 22.00625
-5.0494852 -1.2282158 -5.8038039 18.3048
-4.6255546 -1.231344 -5.7570724 18.574358
-4.0967951 -1.2419093 -5.8317366 17.602949
-3.7752326 -1.2436436 -5.806458 18.168249
-3.4658756 -1.2411271 -5.8005748 18.502666
-2.9848354 -1.2503898 -5.7701111 18.797333
-2.6316946 -1.2530642 -5.8715496 18.210333
-2.2201469 -1.2588147 -5.8523636 15.501374
-1.8395832 -1.2576807 -5.7770238 17.9011
-1.4302619 -1.2668689 -5.7374487 15.250531
-0.9912287 -1.2686688 -5.7589974 16.687874
-0.58795649 -1.2715524 -5.8044891 16.283709
-0.23516925 -1.2821161 -5.775156 17.133833
0.22423109 -1.2792412 -5.7689133 22.563499
0.60419077 -1.2877858 -5.7940717 15.67316
0.98008072 -1.2938316 -5.7932391 14.700333
1.4030203 -1.2943376 -5.7240143 17.041948
1.8228692 -1.3005199 -5.7550902 15.308332
2.1948059 -1.2978392 -5.7166862 15.71625
2.6130641 -1.3013663 -5.7188892 15.349656
3.0182495 -1.3058351 -5.8605933 14.909022
3.4077458 -1.3072658 -5.8728557 18.398664
3.7942047 -1.3135183 -5.8299952 17.174717
4.220098 -1.3090526 -5.7768745 17.675165
4.6191459 -1.3087989 -5.7334685 13.697667
4.9704075 -1.3106748 -5.7940741 16.857958
5.3625498 -1.3038576 -5.8266106 15.296124
5.7450638 -1.3052866 -5.8148766 16.796688
6.2036948 -1.3138288 -5.7912025 17.031334
6.5977473 -1.3035693 -5.8154736 19.069626
7.01577 -1.2900927 -5.797833 21.426249
7.3562531 -1.2987951 -5.7542567 19.090082
7.7909131 -1.2923194 -5.8572292 21.758665
8.124753 -1.3046035 -5.7294364 22.4923
8.4867716 -1.3000007 -5.8657913 22.758667
9.049634 -1.306056 -5.8259954 20.8892
9.3371801 -1.3129234 -5.7348275 22.7575
9.6768198 -1.3039331 -5.7611232 21.755999
10.220888 -1.3068099 -5.8184037 21.838501
10.560603 -1.3029153 -5.795475 22.589249
10.980381 -1.3068126 -5.8177657 22.421667
11.39298 -1.3167726 -5.690618 21.7535
11.683349 -1.300634 -5.7427988 22.08625
12.268257 -1.3145814 -5.8808589 24.59025
12.525953 -1.3164864 -5.8715906 21.584751
12.977887 -1.3293571 -5.8136058 24.589249
13.441195 -1.329072 -5.7414079 22.584751
14.396831 -1.3260896 -5.7464237 22.083
14.621461 -1.3398768 -5.7393212 24.086502
14.935491 -1.334555 -5.9558368 25.088499
15.251844 -1.3519065 -5.7650547 23.08325
15.815353 -1.3355113 -5.8378525 25.0875
16.250837 -1.3493818 -5.7925997 23.5835
16.607325 -1.3498586 -5.6151676 25.086
17.364008 -1.3528228 -5.9717669 24.083
17.623878 -1.3419802 -5.6815081 24.082001
19.223396 -1.363536 -5.6773415 24.081499
20.155321 -1.3396327 -5.7486463 25.082001
20.456779 -1.3439353 -5.9934177 25.081499
22.03396 -1.3349129 -5.799262 25.080999
23.590239 -1.325645 -5.8266416 26.081499
-10.22049 -0.99326164 -5.7544274 23.854914
-9.6471863 -1.1711745 -5.7942619 27.006001
-8.8577499 -1.1953027 -5.8193526 20.013
-8.535614 -1.1678443 -5.721889 26.505249
-8.1827679 -1.1851386 -5.7499108 23.108824
-7.8542256 -1.1851966 -5.8911109 21.677
-7.573544 -1.1743045 -5.8022575 28.003
-7.1067753 -1.1941519 -5.8381815 19.510876
-6.5743399 -1.1982968 -5.6549511 22.007999
-4.9416099 -0.86211598 -5.7199688 22.25775
-4.6422586 -0.83889484 -5.8298211 22.757219
-10.214288 -0.56420118 -5.8052969 27.662729
-8.5664692 -0.53432536 -5.6890812 29.005501
-6.0230212 -0.64657801 -5.6870232 30.002501
-5.8092494 -0.51542765 -5.6606159 29.50375
-4.9901714 -0.72138953 -5.6498747 29.502499
-4.511013 -0.70465231 -5.7119136 29.001833
-4.1463642 -0.59217238 -5.7704077 25.235525
